# .PCD v0.7 - Point Cloud Data file format
VERSION 0.7
FIELDS x y z
SIZE 4 4 4
TYPE F F F
COUNT 1 1 1
WIDTH 826
HEIGHT 1
VIEWPOINT 0 0 0 1 0 0 0
POINTS 826
DATA ascii
-0.25942001 -0.030000955 1.853
-0.25589049 -0.026471432 1.853
-0.24765494 -0.025294922 1.853
-0.25589049 -0.019412382 1.853
-0.24883145 -0.019412382 1.853
-0.38502002 -0.053228576 1.863
-0.27324003 -0.03016286 1.863
-0.26082003 -0.035485715 1.863
-0.25416645 -0.034155004 1.863
-0.24520631 -0.03371143 1.8630002
-0.33888859 -0.023065716 1.863
-0.27324003 -0.024840001 1.863
-0.26507831 -0.024485145 1.8630002
-0.25549716 -0.023065716 1.863
-0.24426001 -0.024248574 1.8630002
-0.23598002 -0.024840003 1.8630002
-0.22888288 -0.024840001 1.863
-0.21350573 -0.024248574 1.8630002
-0.27324003 -0.015968572 1.8630002
-0.26481217 -0.015525 1.863
-0.25372288 -0.014194286 1.8630002
-0.24485146 -0.015968572 1.8630002
-0.23598002 -0.017742861 1.8630002
-0.22888288 -0.015968572 1.8630002
-0.21232288 -0.018334288 1.8630002
-0.20640859 -0.018334288 1.8630002
-0.26436859 -0.0079842862 1.863
-0.25372288 -0.0088714305 1.8630002
-0.22888288 -0.0088714296 1.863
-0.33357242 -0.062433336 1.8730001
-0.39065433 -0.05173048 1.8730001
-0.38351908 -0.053514287 1.8730001
-0.37816763 -0.05173048 1.8730001
-0.34189686 -0.056487303 1.8730001
-0.33401838 -0.05485215 1.8730001
-0.38708669 -0.048162859 1.8730001
-0.36478907 -0.041919526 1.8730001
-0.35497814 -0.042811435 1.8730001
-0.34427524 -0.042811435 1.8730001
-0.33714002 -0.044595242 1.8730001
-0.28148517 -0.043881718 1.8730001
-0.27470666 -0.044595242 1.8730001
-0.26680696 -0.045104899 1.8730003
-0.36354038 -0.034605909 1.8730001
-0.35497814 -0.033892382 1.8730003
-0.34427524 -0.033892382 1.8730003
-0.33476162 -0.034486987 1.8730001
-0.32643718 -0.037460003 1.8730001
-0.28184193 -0.033892386 1.8730001
-0.27470666 -0.035676192 1.8730001
-0.26757145 -0.033892386 1.8730001
-0.23011145 -0.033892386 1.8730001
-0.37400541 -0.024378732 1.8730001
-0.36568099 -0.024616573 1.8730001
-0.35497814 -0.024973337 1.8730001
-0.34498879 -0.0253301 1.8730001
-0.33535624 -0.024973335 1.8730001
-0.28291222 -0.024616573 1.8730001
-0.22476003 -0.024973335 1.8730001
-0.21940859 -0.024973337 1.8730001
-0.40135717 -0.017838098 1.8730001
-0.39600572 -0.017838098 1.8730001
-0.38708669 -0.014270477 1.8730001
-0.37460002 -0.016054288 1.8730001
-0.36612689 -0.01650024 1.8730001
-0.35497817 -0.017073609 1.8730003
-0.34427527 -0.016054288 1.8730003
-0.335713 -0.016767813 1.8730001
-0.28260642 -0.016563948 1.8730003
-0.2408143 -0.012486667 1.8730001
-0.23546287 -0.012486667 1.8730001
-0.22476003 -0.016054288 1.8730001
-0.2170302 -0.014865081 1.8730001
-0.20513812 -0.013675874 1.8730001
-0.37460002 -0.0089190481 1.8730001
-0.3692486 -0.0089190481 1.8730001
-0.28095001 -0.0053514289 1.8730001
-0.27470666 -0.0053514293 1.8730001
-0.26578766 -0.0032108575 1.8730001
-0.25508475 -0.0035676192 1.8730001
-0.24482787 -0.005797381 1.8730001
-0.23412502 -0.0049054772 1.8730001
-0.22476003 -0.0053514293 1.8730001
-0.21762477 -0.0071352385 1.8730001
-0.27470666 0.0017838096 1.8730001
-0.26578766 0.0017838096 1.8730001
-0.2568686 0.0017838096 1.8730001
-0.24616572 0.0017838096 1.8730001
-0.23296554 0.0046379054 1.8730001
-0.22476003 0.0017838096 1.8730001
-0.23367906 0.026757145 1.8730001
-0.33535334 -0.073526673 1.8830001
-0.34252667 -0.062766671 1.8830001
-0.33535331 -0.066801667 1.8830003
-0.38198003 -0.055593338 1.8830001
-0.37408933 -0.055593338 1.8830003
-0.36763334 -0.05738667 1.8830001
-0.34491777 -0.054397784 1.8830001
-0.33176669 -0.059180003 1.8830001
-0.32638669 -0.053800002 1.8830001
-0.28657469 -0.054876 1.8830003
-0.39274001 -0.046626672 1.8830001
-0.38484937 -0.046268005 1.8830003
-0.37391001 -0.047523335 1.8830001
-0.36404669 -0.046626672 1.8830001
-0.34252667 -0.048420005 1.8830001
-0.33356002 -0.043040004 1.8830001
-0.32519114 -0.044235565 1.8830003
-0.2923134 -0.04483334 1.8830001
-0.28783002 -0.045730002 1.8830001
-0.38556668 -0.030486669 1.8830001
-0.37378198 -0.033560958 1.8830004
-0.36763334 -0.030486669 1.8830001
-0.33296224 -0.03287778 1.8830001
-0.32531068 -0.034790669 1.8830003
-0.2923134 -0.034073338 1.8830001
-0.28872669 -0.034073338 1.8830001
-0.39274001 -0.026900001 1.8830001
-0.38556671 -0.025106667 1.8830003
-0.37839335 -0.026900001 1.8830001
-0.36763334 -0.026900001 1.8830001
-0.33176669 -0.025106668 1.8830001
-0.32698447 -0.025704447 1.8830001
-0.29231337 -0.025106668 1.8830001
-0.28872669 -0.026900001 1.8830001
-0.40350002 -0.012553334 1.8830001
-0.39489204 -0.014705333 1.8830003
-0.38454193 -0.016652383 1.8830004
-0.36225337 -0.012553334 1.8830001
-0.35328668 -0.012553334 1.8830001
-0.33266336 -0.015243335 1.8830001
-0.32561815 -0.016652383 1.8830004
-0.29231337 -0.017933335 1.8830001
-0.28872669 -0.014346668 1.8830001
-0.20623335 -0.012553334 1.8830001
-0.39274001 -0.0089666676 1.8830001
-0.38556671 -0.0089666676 1.8830001
-0.37391001 -0.0044833338 1.8830001
-0.36455908 -0.0064047631 1.8830004
-0.35543871 -0.0060973344 1.8830003
-0.34566501 -0.005828334 1.8830003
-0.33535337 -0.0053800005 1.8830003
-0.32728335 -0.0053800005 1.8830001
-0.28693336 -0.0062766676 1.8830001
-0.24210002 -0.0017933334 1.8830001
-0.22058001 -0.0017933334 1.8830001
-0.21430334 -0.0044833338 1.8830001
-0.20982002 -0.0089666676 1.8830001
-0.28155336 0.0017933334 1.8830001
-0.2537567 0.0053800005 1.8830001
-0.2451743 0.0064047631 1.8830004
-0.23582335 0.0062766671 1.8830001
-0.22488402 0.0060973344 1.8830003
-0.26003334 0.019726668 1.8830001
-0.25465336 0.017933335 1.8830001
-0.24568668 0.016652383 1.8830004
-0.23492667 0.016139999 1.8830003
-0.22631867 0.016140001 1.8830003
-0.26003334 0.025106668 1.8830001
-0.25465333 0.025106668 1.8830001
-0.24568668 0.025106667 1.8830003
-0.23492669 0.024748003 1.8830003
-0.22775334 0.025106668 1.8830001
-0.26003334 0.032280002 1.8830001
-0.25465333 0.032280002 1.8830001
-0.24568668 0.030486669 1.8830001
-0.23564403 0.031921338 1.8830003
-0.22775334 0.030486669 1.8830001
-0.33370477 -0.077563815 1.8940001
-0.32648954 -0.070348576 1.8940001
-0.38421148 -0.063133344 1.8940001
-0.3751924 -0.063133337 1.8940001
-0.36978099 -0.063133337 1.8940001
-0.35715431 -0.063133337 1.8940001
-0.34813526 -0.064937145 1.8940001
-0.29041335 -0.063133337 1.8940001
-0.38421148 -0.059525721 1.8940001
-0.3751924 -0.055918097 1.8940001
-0.36514261 -0.055402718 1.8940002
-0.35535052 -0.055918097 1.8940002
-0.33009717 -0.052310478 1.8940001
-0.32468575 -0.05411429 1.8940001
-0.29311907 -0.056820001 1.8940001
-0.3932305 -0.041487623 1.8940001
-0.38330954 -0.042389527 1.8940001
-0.37699622 -0.043291435 1.8940001
-0.36797717 -0.048702862 1.8940001
-0.35535049 -0.048702862 1.8940001
-0.34813526 -0.048702862 1.8940001
-0.3337048 -0.048702862 1.8940001
-0.32288194 -0.045095243 1.8940001
-0.31927431 -0.045095243 1.8940001
-0.29762858 -0.041487623 1.8940001
-0.39458334 -0.034723338 1.8940001
-0.38421145 -0.035303134 1.8940002
-0.32408449 -0.031867303 1.8940001
-0.31927431 -0.034272384 1.8940001
-0.30123621 -0.030664764 1.8940001
-0.29762858 -0.034272384 1.8940001
-0.40224954 -0.025253335 1.8940001
-0.39743942 -0.024652064 1.8940001
-0.32408449 -0.024652064 1.8940001
-0.31927431 -0.027057145 1.8940001
-0.30123621 -0.025253335 1.8940001
-0.29762858 -0.025253335 1.8940001
-0.32288194 -0.014430477 1.8940001
-0.31927431 -0.016234286 1.8940001
-0.30123621 -0.018038096 1.8940001
-0.2967267 -0.015332382 1.8940001
-0.40224954 -0.0072152382 1.8940001
-0.39503431 -0.0054114289 1.8940001
-0.38493297 -0.0032468573 1.8940001
-0.37699622 -0.0018038097 1.8940001
-0.36436954 -0.0018038097 1.8940001
-0.35354668 -0.0018038097 1.8940001
-0.324325 -0.0054114289 1.8940001
-0.31927431 -0.0054114289 1.8940001
-0.29281843 -0.0054114289 1.8940001
-0.21104573 -0.0036076193 1.8940001
-0.20486124 -0.0054114289 1.8940002
-0.38180637 0.0030063493 1.8940001
-0.37459111 0.0030063493 1.8940001
-0.3668949 0.0032468573 1.8940001
-0.3577556 0.0030063493 1.8940001
-0.34212255 0.0042088893 1.8940001
-0.33370477 0.0027057144 1.8940001
-0.32648954 0.0018038097 1.8940001
-0.31927431 0.0018038097 1.8940001
-0.29041335 0.0018038097 1.8940001
-0.28500193 0.0036076193 1.8940001
-0.27357781 0.0066139689 1.8940001
-0.26516002 0.0072152382 1.8940001
-0.25794479 0.009019048 1.8940001
-0.22186859 0.0072152382 1.8940001
-0.21537487 0.0032468573 1.8940001
-0.26455876 0.015633017 1.8940001
-0.25433716 0.012626668 1.8940001
-0.2435143 0.016234286 1.8940001
-0.22277048 0.016234286 1.8940001
-0.21826097 0.016234286 1.8940001
-0.26516002 0.025253335 1.8940001
-0.22367239 0.025253333 1.8940001
-0.21826097 0.025253335 1.8940001
-0.38060382 0.037880003 1.8940001
-0.37699622 0.036076196 1.8940001
-0.2639575 0.034272384 1.8940001
-0.25343525 0.036978099 1.8940001
-0.24531811 0.036076196 1.8940001
-0.23539716 0.036978099 1.8940001
-0.22619772 0.033550858 1.8940001
-0.2435143 0.041487623 1.8940001
-0.23810288 0.041487623 1.8940001
-0.47448894 -0.12270223 1.904
-0.46965337 -0.12149334 1.904
-0.45333338 -0.12149334 1.904
-0.48053336 -0.11061334 1.904
-0.47600001 -0.11514667 1.904
-0.46602672 -0.11424001 1.9040002
-0.45469338 -0.11378668 1.9040002
-0.44426671 -0.11424001 1.9040002
-0.43610668 -0.11514667 1.904
-0.47509336 -0.10517333 1.904
-0.46602672 -0.10517334 1.9040002
-0.45514673 -0.10517333 1.9040002
-0.44426674 -0.10698667 1.904
-0.47509336 -0.099733338 1.904
-0.46481782 -0.097315565 1.9040002
-0.4551467 -0.097557336 1.9040002
-0.35360003 -0.081600003 1.904
-0.34816003 -0.081600003 1.904
-0.37536001 -0.070720002 1.904
-0.36375469 -0.072170667 1.9040002
-0.35541338 -0.074346676 1.9040002
-0.34680003 -0.0748 1.9040002
-0.33365333 -0.072533339 1.904
-0.32821336 -0.077973336 1.904
-0.30464 -0.070720002 1.904
-0.38442671 -0.067093335 1.904
-0.37536001 -0.067093335 1.904
-0.36520538 -0.065642677 1.9040002
-0.35480893 -0.065884449 1.904
-0.34634668 -0.067093335 1.904
-0.33184001 -0.065280005 1.904
-0.32458672 -0.065280005 1.9040002
-0.30464 -0.065280005 1.904
-0.29629871 -0.06564267 1.9040002
-0.33184001 -0.059840005 1.904
-0.32386136 -0.056938674 1.9040002
-0.31733334 -0.054400004 1.904
-0.30373335 -0.057120007 1.904
-0.29920003 -0.056213342 1.904
-0.4007467 -0.04170667 1.904
-0.32096002 -0.045333337 1.904
-0.31422481 -0.044297148 1.9040003
-0.30464 -0.045333337 1.9040002
-0.29920003 -0.047146671 1.904
-0.4007467 -0.030826669 1.904
-0.32096002 -0.034453336 1.904
-0.31370667 -0.034453336 1.9040002
-0.30500266 -0.035178673 1.9040002
-0.32096002 -0.023573335 1.904
-0.3137067 -0.025386672 1.9040002
-0.30645335 -0.025386669 1.904
-0.3137067 -0.016320001 1.9040002
-0.30554667 -0.015413335 1.904
-0.40256003 -0.0018133335 1.904
-0.39712003 -0.0018133335 1.904
-0.31642669 -0.0054400004 1.904
-0.3028267 -0.0054400004 1.904
-0.29829335 -0.0045333337 1.904
-0.20128001 -0.0018133335 1.904
-0.4007467 0.0018133335 1.904
-0.39494404 0.0054400004 1.9040002
-0.38744891 0.0066488897 1.9040002
-0.37626669 0.0081600007 1.904
-0.36327112 0.007857779 1.904
-0.35480893 0.0042311116 1.904
-0.34755561 0.0060444451 1.9040002
-0.33546668 0.0076160007 1.9040002
-0.32458672 0.0064761913 1.9040003
-0.31733334 0.0054400004 1.904
-0.29557335 0.0030222225 1.904
-0.28469333 0.0076160007 1.9040002
-0.27744001 0.0090666674 1.904
-0.21488002 0.0081600007 1.904
-0.20563202 0.0032640004 1.9040002
-0.38520387 0.015801905 1.9040003
-0.37536001 0.016319999 1.9040002
-0.36448002 0.016319999 1.9040002
-0.35541338 0.016320001 1.9040002
-0.34634671 0.016320001 1.9040002
-0.33546671 0.016319999 1.9040002
-0.32458669 0.016320001 1.9040002
-0.31733334 0.016320001 1.904
-0.27381337 0.015801905 1.9040003
-0.21397334 0.016320001 1.9040002
-0.38533336 0.026293334 1.904
-0.37536001 0.025386672 1.9040002
-0.36448002 0.025024002 1.9040002
-0.35541338 0.025386669 1.904
-0.34634671 0.025386669 1.9040002
-0.33546671 0.025386669 1.9040002
-0.32458669 0.025386669 1.9040002
-0.31612447 0.025991112 1.904
-0.27018669 0.023573335 1.904
-0.21578668 0.025386669 1.904
-0.38533336 0.031733334 1.904
-0.37432387 0.033935241 1.9040003
-0.36568892 0.032035559 1.904
-0.35541338 0.032640003 1.904
-0.34634671 0.032640003 1.9040002
-0.3359848 0.033417147 1.9040003
-0.22424892 0.036871117 1.904
-0.21850668 0.033546668 1.904
-0.37354669 0.04170667 1.904
-0.26293334 0.04170667 1.904
-0.25568002 0.041706674 1.904
-0.2448 0.043520004 1.904
-0.23210669 0.04170667 1.904
-0.22666669 0.04170667 1.904
-0.20853335 0.099733338 1.904
-0.3137067 0.10698667 1.904
-0.24480002 0.10698667 1.904
-0.23392002 0.10698667 1.904
-0.22485335 0.10698667 1.904
-0.21488002 0.10608 1.904
-0.20563202 0.10553601 1.9040002
-0.47236669 -0.13313811 1.9150001
-0.46598333 -0.13405001 1.9150001
-0.4735826 -0.12827462 1.9150002
-0.46507141 -0.12584287 1.9150001
-0.45412859 -0.12766668 1.9150002
-0.47601432 -0.1130762 1.9150001
-0.46142384 -0.11854763 1.9150001
-0.43370196 -0.11417048 1.9150002
-0.42546877 -0.11594219 1.9150002
-0.47783813 -0.10578096 1.9150001
-0.45048097 -0.10213333 1.9150001
-0.44500956 -0.10213334 1.9150001
-0.43710637 -0.10517304 1.9150002
-0.42859527 -0.10760477 1.9150001
-0.39211908 -0.10578096 1.9150001
-0.38300002 -0.10395715 1.9150002
-0.47601432 -0.094838105 1.9150002
-0.46385559 -0.094230168 1.9150002
-0.45230478 -0.094838098 1.9150001
-0.44500956 -0.094838098 1.9150001
-0.43953812 -0.09666191 1.9150001
-0.38300002 -0.094838098 1.9150001
-0.37388098 -0.094838105 1.9150002
-0.36476192 -0.094838098 1.9150001
-0.35564288 -0.094838105 1.9150002
-0.47601435 -0.087542862 1.9150002
-0.46455038 -0.086761229 1.9150002
-0.45534444 -0.086934924 1.9150002
-0.44500956 -0.087542862 1.9150001
-0.43680239 -0.084807143 1.9150001
-0.42494765 -0.089366674 1.9150001
-0.37388101 -0.085719049 1.9150001
-0.36476195 -0.085719064 1.9150002
-0.35616401 -0.086761229 1.9150002
-0.34470004 -0.086761229 1.9150002
-0.33375719 -0.085197963 1.9150002
-0.32463813 -0.085719049 1.9150002
-0.31551906 -0.083895236 1.9150001
-0.46142384 -0.078423813 1.9150001
-0.45412859 -0.0766 1.9150001
-0.44500956 -0.074776195 1.9150001
-0.43662006 -0.076964758 1.9150002
-0.42677146 -0.074776195 1.9150001
-0.38482383 -0.07295239 1.9150001
-0.37388098 -0.076600008 1.9150002
-0.36476192 -0.078423813 1.9150001
-0.33375716 -0.07599207 1.9150002
-0.32463813 -0.074776202 1.9150002
-0.31551906 -0.074776195 1.9150001
-0.30457622 -0.0766 1.9150002
-0.39394289 -0.067480959 1.9150001
-0.32281432 -0.060185719 1.9150001
-0.31551906 -0.063833341 1.9150001
-0.31369525 -0.054714292 1.9150001
-0.30822384 -0.054714289 1.9150001
-0.31369525 -0.049242862 1.9150001
-0.3133305 -0.0054714293 1.9150002
-0.30822384 -0.0054714289 1.9150002
-0.3994143 0.0054714289 1.9150001
-0.37023336 0.0091190478 1.9150001
-0.3574667 0.0091190478 1.9150001
-0.31369525 0.0054714289 1.9150002
-0.30503213 0.0059273811 1.9150001
-0.29606509 0.0079031754 1.9150002
-0.20517859 0.0082071433 1.9150001
-0.19697145 0.0091190478 1.9150001
-0.39455086 0.015198415 1.9150002
-0.31369525 0.014590478 1.9150001
-0.30530575 0.014955239 1.9150002
-0.29363334 0.012766668 1.9150001
-0.28633815 0.014590478 1.9150002
-0.20609049 0.014590478 1.9150002
-0.19879524 0.012766668 1.9150001
-0.39333495 0.021277782 1.9150002
-0.38847145 0.023709526 1.9150001
-0.36658573 0.027357144 1.9150001
-0.3133305 0.022980003 1.9150002
-0.30640003 0.023709526 1.9150002
-0.28451431 0.020061906 1.9150001
-0.27630717 0.023709526 1.9150001
-0.21338573 0.025533335 1.9150001
-0.20791432 0.023709526 1.9150002
-0.37023336 0.038300004 1.9150001
-0.3651267 0.035381909 1.9150002
-0.35564288 0.038300004 1.9150002
-0.34652382 0.038300004 1.9150001
-0.33229813 0.036111433 1.9150002
-0.32463813 0.034652382 1.9150002
-0.31656128 0.0341313 1.9150002
-0.30822384 0.031004764 1.9150001
-0.27174765 0.032828573 1.9150001
-0.26810002 0.038300004 1.9150001
-0.21520954 0.034652382 1.9150001
-0.20973811 0.031004764 1.9150001
-0.37144923 0.044379368 1.9150002
-0.36476192 0.041947622 1.9150001
-0.35564288 0.041947626 1.9150002
-0.34470004 0.041947622 1.9150001
-0.33558097 0.041947622 1.9150001
-0.32646194 0.041947622 1.9150001
-0.26202065 0.046811115 1.9150002
-0.25533336 0.047419053 1.9150001
-0.24694383 0.047783814 1.9150002
-0.23600097 0.047054291 1.9150002
-0.22432859 0.043771431 1.9150001
-0.21703334 0.041947622 1.9150001
-0.2644524 0.056538098 1.9150001
-0.35473096 0.095750004 1.9150001
-0.34470004 0.095750004 1.9150001
-0.30457622 0.09666191 1.9150002
-0.24256669 0.09666191 1.9150001
-0.23527145 0.09666191 1.9150002
-0.22432859 0.095750004 1.9150001
-0.21520954 0.09666191 1.9150001
-0.20609049 0.09666191 1.9150002
-0.35564291 0.10395715 1.9150001
-0.34470001 0.10395716 1.9150001
-0.33375716 0.10395716 1.9150001
-0.32463813 0.10395716 1.9150002
-0.31551906 0.10350119 1.9150001
-0.30457625 0.10395716 1.9150001
-0.29728097 0.10760477 1.9150001
-0.26262859 0.10578096 1.9150001
-0.25533336 0.10395716 1.9150002
-0.24621432 0.10213333 1.9150002
-0.23527145 0.10213333 1.9150002
-0.22432858 0.10213333 1.9150002
-0.21581748 0.10152541 1.9150002
-0.20365874 0.10152541 1.9150002
-0.19697146 0.10395714 1.9150002
-0.46383333 -0.13750002 1.9250001
-0.42533338 -0.11183334 1.9250001
-0.41564289 -0.11550002 1.9250002
-0.40333334 -0.11733334 1.9250001
-0.39783335 -0.1155 1.9250001
-0.43376675 -0.10230001 1.9250001
-0.42533338 -0.10450002 1.9250001
-0.41250002 -0.10633334 1.9250001
-0.40516669 -0.10633334 1.9250001
-0.39355561 -0.10450001 1.9250001
-0.44183338 -0.093500003 1.9250001
-0.43450007 -0.09533333 1.9250001
-0.42533338 -0.095333338 1.9250001
-0.41250002 -0.095333338 1.9250001
-0.39233336 -0.095333338 1.9250001
-0.38500005 -0.095333338 1.9250001
-0.47300005 -0.082500003 1.9250001
-0.46750003 -0.082500003 1.9250001
-0.45405555 -0.083722226 1.9250001
-0.44550002 -0.082500003 1.9250001
-0.43397623 -0.087214299 1.9250002
-0.42496672 -0.085433342 1.9250001
-0.41616669 -0.082500003 1.9250001
-0.39172226 -0.087388895 1.9250001
-0.38500005 -0.086166672 1.9250001
-0.32083336 -0.088000007 1.9250001
-0.31472227 -0.087388895 1.9250001
-0.46750003 -0.078833342 1.9250001
-0.45466667 -0.078833342 1.9250001
-0.44550002 -0.076388896 1.9250001
-0.43376669 -0.073700003 1.9250001
-0.4271667 -0.075166672 1.9250001
-0.39355558 -0.075166672 1.9250001
-0.38500005 -0.078833342 1.9250001
-0.30250001 0.012833335 1.9250001
-0.29761112 0.01527778 1.9250001
-0.19800001 0.014666669 1.9250001
-0.30250001 0.023833334 1.9250001
-0.27683336 0.027500002 1.9250001
-0.20350002 0.020166667 1.9250001
-0.19983335 0.020166667 1.9250001
-0.31350002 0.036666669 1.9250001
-0.30677781 0.034833338 1.9250001
-0.27561116 0.034833338 1.9250001
-0.21205556 0.03727778 1.9250001
-0.20716669 0.033 1.9250001
-0.36575001 0.046750002 1.9250001
-0.35383338 0.045833342 1.9250001
-0.34650001 0.042166669 1.9250001
-0.33550003 0.045833334 1.9250001
-0.32450005 0.043388896 1.9250001
-0.31716669 0.042166669 1.9250001
-0.2676667 0.045833334 1.9250001
-0.23283336 0.049500003 1.9250001
-0.22550003 0.04827778 1.9250001
-0.21450001 0.044000003 1.9250001
-0.20716669 0.042166669 1.9250001
-0.36850002 0.053166669 1.9250001
-0.26216668 0.055000003 1.9250001
-0.25483334 0.055000003 1.9250001
-0.24383335 0.054083336 1.9250001
-0.23650001 0.055000003 1.9250001
-0.22916669 0.053166669 1.9250001
-0.35383335 0.089833342 1.9250001
-0.3655667 0.094966672 1.9250001
-0.35383335 0.093500003 1.9250001
-0.34283337 0.093500003 1.9250001
-0.33550006 0.09716668 1.9250001
-0.32450002 0.09716668 1.9250001
-0.31594449 0.095944449 1.9250001
-0.30616671 0.093500003 1.9250001
-0.29883334 0.097166672 1.9250001
-0.25483334 0.095333338 1.9250001
-0.24475001 0.094416678 1.9250001
-0.23466668 0.093500003 1.9250001
-0.22550002 0.093500003 1.9250001
-0.21450001 0.093500003 1.9250001
-0.20533335 0.093500003 1.9250001
-0.19861113 0.095944449 1.9250001
-0.36630002 0.10523335 1.9250001
-0.29761112 0.10450001 1.9250001
-0.26583338 0.10327779 1.9250001
-0.41239879 -0.12476446 1.9360002
-0.40748194 -0.12537906 1.9360001
-0.42223242 -0.11247239 1.9360001
-0.41116959 -0.11616002 1.9360002
-0.40563813 -0.11247239 1.9360001
-0.42223245 -0.10509716 1.9360002
-0.41547179 -0.10448255 1.9360001
-0.40453187 -0.10435963 1.9360001
-0.42223245 -0.094034299 1.9360002
-0.41485721 -0.093507499 1.9360001
-0.40333337 -0.094495252 1.936
-0.42223242 -0.084815241 1.9360001
-0.41411969 -0.085184 1.9360001
-0.40133592 -0.084200643 1.9360002
-0.39518988 -0.085429847 1.9360002
-0.42407626 -0.075596198 1.9360001
-0.41538399 -0.076649807 1.9360001
-0.40379435 -0.076649807 1.9360001
-0.18991239 0.0092190485 1.9360001
-0.19544382 0.014750477 1.9360001
-0.18991239 0.012906668 1.9360001
-0.30054098 0.023969524 1.9360002
-0.29500955 0.020281905 1.9360001
-0.28210288 0.027657144 1.9360001
-0.20281906 0.025813336 1.9360001
-0.3042286 0.036876194 1.9360001
-0.28210288 0.031344764 1.9360001
-0.27841526 0.038720004 1.9360001
-0.20589209 0.035032384 1.9360002
-0.36507431 0.049782861 1.9360001
-0.35585529 0.049782865 1.9360002
-0.34663621 0.047939051 1.9360001
-0.33372957 0.049782865 1.9360002
-0.32451048 0.047939051 1.9360001
-0.31529146 0.045480639 1.9360001
-0.30668703 0.043636829 1.9360002
-0.27288383 0.044251431 1.9360001
-0.22310096 0.049782861 1.9360001
-0.21480383 0.048860956 1.9360001
-0.20650668 0.047017146 1.9360001
-0.37060574 0.057158098 1.9360001
-0.36568892 0.054699685 1.9360002
-0.35585526 0.053470481 1.9360001
-0.34110478 0.055314288 1.9360001
-0.33372954 0.053470481 1.9360001
-0.3263543 0.053470481 1.9360001
-0.2673524 0.053470481 1.9360001
-0.24522668 0.057158098 1.9360001
-0.23293462 0.055928893 1.9360002
-0.22494477 0.055314288 1.9360001
-0.21572575 0.055314295 1.9360001
-0.2071213 0.055928893 1.9360002
-0.25260192 0.060845718 1.9360001
-0.22494477 0.060845718 1.9360001
-0.21634035 0.063304141 1.9360001
-0.20835049 0.060845718 1.9360001
-0.22678858 0.079283811 1.9360001
-0.23232001 0.086659051 1.9360001
-0.22678858 0.084815241 1.9360001
-0.34110478 0.094034292 1.9360001
-0.33372957 0.094034299 1.9360002
-0.32451048 0.094034292 1.9360001
-0.31529143 0.094034292 1.9360001
-0.30054098 0.094034292 1.9360001
-0.26366478 0.097721912 1.9360001
-0.23416382 0.090346679 1.9360002
-0.22678858 0.090346672 1.9360001
-0.21941335 0.090346672 1.9360001
-0.19360001 0.097721912 1.9360001
-0.40608859 -0.12423715 1.9470001
-0.40979716 -0.10198572 1.9470001
-0.40979716 -0.090860009 1.9470001
-0.40856099 -0.085915253 1.9470003
-0.41536003 -0.072317146 1.9470001
-0.40979716 -0.072317146 1.9470001
-0.4172143 -0.068608575 1.9470001
-0.40794289 -0.068608575 1.9470001
-0.18728288 0.0092714289 1.9470001
-0.19284573 0.016688572 1.9470001
-0.18728288 0.014834287 1.9470001
-0.29483145 0.025960002 1.9470003
-0.28741431 0.025960002 1.9470001
-0.19470002 0.024105715 1.9470003
-0.18728288 0.020397143 1.9470001
-0.3022486 0.035231434 1.9470003
-0.29408973 0.033006288 1.9470001
-0.28556001 0.03523143 1.9470001
-0.2030443 0.036158573 1.9470001
-0.1965543 0.036158573 1.9470001
-0.18728288 0.038940001 1.9470001
-0.3034848 0.045120955 1.9470003
-0.27814287 0.044502862 1.9470001
-0.20335335 0.045120955 1.9470003
-0.19470003 0.044502866 1.9470003
-0.18542859 0.044502862 1.9470001
-0.17801145 0.042648572 1.9470001
-0.36344004 0.057482861 1.9470001
-0.35416862 0.055999435 1.9470001
-0.34675145 0.055628575 1.9470001
-0.33562574 0.056555718 1.9470001
-0.32375833 0.055999435 1.9470001
-0.31522858 0.053774294 1.9470003
-0.30595714 0.053774294 1.9470003
-0.27258003 0.050065719 1.9470001
-0.20304431 0.05377429 1.9470001
-0.19575961 0.053244498 1.9470003
-0.18728288 0.051920004 1.9470001
-0.34452629 0.064158291 1.9470001
-0.33562571 0.064900011 1.9470003
-0.32450002 0.064900003 1.9470003
-0.31584668 0.062427621 1.9470003
-0.30966574 0.061191432 1.9470001
-0.26330861 0.064900011 1.9470003
-0.25350738 0.064900011 1.9470003
-0.24476573 0.064900011 1.9470003
-0.2354943 0.064900003 1.9470003
-0.22511032 0.067125149 1.9470001
-0.21324287 0.066754289 1.9470001
-0.20536216 0.065363578 1.9470003
-0.19575961 0.064370215 1.9470003
-0.33500767 0.074789532 1.9470003
-0.32450005 0.07602571 1.9470003
-0.31708288 0.077880003 1.9470001
-0.24414764 0.074789524 1.9470003
-0.2354943 0.07602571 1.9470003
-0.22390501 0.075562149 1.9470003
-0.21509717 0.076025724 1.9470003
-0.20582573 0.072317146 1.9470003
-0.19840859 0.072317146 1.9470001
-0.35416859 0.087151438 1.9470001
-0.32375833 0.085668012 1.9470001
-0.31584668 0.085915253 1.9470003
-0.30688429 0.086224295 1.9470001
-0.24476573 0.085297152 1.9470001
-0.23642144 0.08437001 1.9470001
-0.2225143 0.085297145 1.9470001
-0.21695144 0.085297152 1.9470001
-0.20211716 0.083442859 1.9470001
-0.35231429 0.090860009 1.9470001
-0.34675145 0.090860009 1.9470001
-0.33377147 0.090860009 1.9470001
-0.32450002 0.090860009 1.9470003
-0.31522858 0.090860009 1.9470001
-0.30595717 0.090860009 1.9470003
-0.29575861 0.097350009 1.9470001
-0.27443433 0.098277152 1.9470001
-0.26763529 0.095804773 1.9470003
-0.2503286 0.090860009 1.9470001
-0.24476573 0.090860009 1.9470001
-0.22436859 0.090860009 1.9470001
-0.21509716 0.090860009 1.9470001
-0.20582573 0.090860009 1.9470003
-0.19840859 0.09456858 1.9470001
-0.18461144 0.016782857 1.9580001
-0.18610325 0.024987811 1.9580001
-0.30022669 0.037295241 1.9580001
-0.29463241 0.039160002 1.9580001
-0.28903812 0.039160002 1.9580001
-0.19430821 0.034684576 1.9580001
-0.18523304 0.035430476 1.9580001
-0.30022669 0.044754289 1.9580001
-0.29463241 0.044754289 1.9580001
-0.28624099 0.044754289 1.9580001
-0.18088192 0.04661905 1.9580001
-0.1771524 0.04661905 1.9580001
-0.30022669 0.054078102 1.9580001
-0.29463241 0.054078102 1.9580001
-0.28903812 0.055942863 1.9580001
-0.27635774 0.054824006 1.9580001
-0.19207048 0.055942863 1.9580001
-0.18354587 0.054610893 1.9580002
-0.1771524 0.052213337 1.9580001
-0.36549336 0.063401908 1.9580001
-0.35616955 0.065266676 1.9579999
-0.34871051 0.068996198 1.9580001
-0.31439885 0.067504384 1.9580001
-0.30395621 0.065266669 1.9579999
-0.29649717 0.065266669 1.9580001
-0.25920191 0.068996198 1.9580001
-0.19207048 0.06713143 1.9580001
-0.18610325 0.063774861 1.9580001
-0.3536832 0.073968902 1.9580001
-0.34572691 0.074963436 1.9580001
-0.31439885 0.074217528 1.9580001
-0.30470213 0.074217528 1.9580001
-0.26293144 0.072725721 1.9580001
-0.2547265 0.074217528 1.9580001
-0.24614859 0.076455243 1.9580001
-0.21071811 0.076455243 1.9580001
-0.20512383 0.076455243 1.9580001
-0.19580001 0.074590482 1.9580001
-0.35244006 0.083914295 1.9580001
-0.34498096 0.083914287 1.9579999
-0.33441398 0.084535882 1.9580001
-0.3139016 0.081427947 1.9580001
-0.30470213 0.083168387 1.9580001
-0.25500619 0.083914287 1.9580001
-0.24801335 0.080184765 1.9580001
-0.21220993 0.084660195 1.9580001
-0.20549679 0.083914295 1.9580001
-0.1962662 0.083448097 1.9580001
-0.34311622 0.091373339 1.9580001
-0.30022669 0.091373339 1.9580001
-0.29525399 0.093859695 1.9580001
-0.2853086 0.097900003 1.9580001
-0.27598479 0.095102862 1.9580001
-0.26293144 0.091373339 1.9580001
-0.25733715 0.091373339 1.9580001
-0.19704318 0.092616521 1.9580001
-0.28691146 0.046880957 1.9690001
-0.29066193 0.050631434 1.9690001
-0.28503621 0.054381907 1.9690001
-0.29253715 0.065633334 1.9690001
-0.18564859 0.067508578 1.9690001
-0.30191335 0.076884769 1.9690001
-0.29691273 0.074384451 1.9690002
-0.26253337 0.076884769 1.9690001
-0.19314954 0.076884769 1.9690001
-0.18939906 0.073134288 1.9690001
-0.30191335 0.082510486 1.9690001
-0.29816288 0.084385723 1.9690002
-0.26253337 0.08626096 1.9690001
-0.19314954 0.088136196 1.9690001
-0.29253715 0.093761906 1.9690001
-0.28600001 0.064742863 1.9800003
-0.2753143 0.062228575 1.9800001
-0.29354289 0.076057151 1.9800003
-0.2866286 0.075428575 1.9800001
-0.19045715 0.077314287 1.9800001
-0.18668573 0.073542863 1.9800001
-0.29417145 0.084857158 1.9800003
-0.2866286 0.084857151 1.9800003
-0.19045715 0.084857151 1.9800003
-0.18668573 0.081085719 1.9800001
-0.29228574 0.092400007 1.9800001
-0.28267431 0.066400006 1.9920001
-0.2769829 0.066400006 1.9920001
-0.2864686 0.070194289 1.9920001
-0.18528764 0.076518103 1.9920001
-0.28267431 0.087268576 1.9920001
-0.26749715 0.083474293 1.9920001
-0.28328145 0.073443338 2.003
-0.27660477 0.070581913 2.003
-0.28169176 0.083299369 2.003
-0.28210002 0.076761909 2.0150001
-0.27698255 0.077401593 2.0150001
-0.27634287 0.082519054 2.0150001
