# .PCD v0.7 - Point Cloud Data file format
VERSION 0.7
FIELDS x y z
SIZE 4 4 4
TYPE F F F
COUNT 1 1 1
WIDTH 550
HEIGHT 1
VIEWPOINT 0 0 0 1 0 0 0
POINTS 550
DATA ascii
-0.31540716 -0.32908335 1.7950001
-0.30942383 -0.32822859 1.7950001
-0.22736669 -0.2786524 1.7950001
-0.30324385 -0.33245146 1.8040001
-0.27661335 -0.33502859 1.8040001
-0.34304637 -0.32701081 1.8040003
-0.33331054 -0.32472003 1.8040001
-0.32429048 -0.32429051 1.804
-0.31490237 -0.32373825 1.8040001
-0.30453241 -0.32472003 1.804
-0.33331051 -0.31441146 1.8040001
-0.32403278 -0.31647316 1.8040001
-0.31441146 -0.31784767 1.8040003
-0.24396954 -0.3041029 1.8040001
-0.2358086 -0.30367339 1.804
-0.22592953 -0.30152574 1.8040001
-0.21648002 -0.30066669 1.8040001
-0.20788954 -0.30066669 1.8040001
-0.24362592 -0.29310706 1.8040001
-0.23537906 -0.2937943 1.804
-0.22556138 -0.2937943 1.8040001
-0.21574369 -0.2937943 1.8040001
-0.20674416 -0.29608509 1.8040003
-0.24362592 -0.28348574 1.8040001
-0.23580858 -0.28348574 1.804
-0.22850668 -0.28520381 1.8040001
-0.21476191 -0.28692192 1.8040001
-0.24225144 -0.27661335 1.8040001
-0.23537907 -0.2757543 1.8040001
-0.22736129 -0.27546796 1.8040003
-0.23652446 -0.26859558 1.8040003
-0.22850668 -0.26802289 1.8040001
-0.29427117 -0.33573401 1.8140001
-0.28505716 -0.33550367 1.8140001
-0.27469146 -0.33515811 1.8140001
-0.26778096 -0.33688575 1.8140001
-0.35358605 -0.32767177 1.8140001
-0.34322032 -0.32536829 1.8140001
-0.30233335 -0.32652003 1.8140001
-0.29772636 -0.32882351 1.8140001
-0.27123621 -0.32652003 1.8140001
-0.26432574 -0.32479241 1.8140001
-0.25223243 -0.32565624 1.8140001
-0.24428535 -0.32513791 1.8140001
-0.2349562 -0.32306477 1.8140001
-0.22977334 -0.32306477 1.8140001
-0.3507067 -0.31788194 1.8140001
-0.34330261 -0.31714153 1.8140002
-0.32738382 -0.31356287 1.8140001
-0.31684536 -0.31477222 1.8140001
-0.30578861 -0.31960958 1.8140001
-0.26087049 -0.31788194 1.8140001
-0.25257793 -0.31753641 1.8140001
-0.24359433 -0.3161543 1.814
-0.2349562 -0.3161543 1.8140001
-0.22746986 -0.31500256 1.8140001
-0.33515811 -0.30924383 1.8140001
-0.32652003 -0.30924383 1.8140001
-0.25136858 -0.3066524 1.8140001
-0.24532193 -0.30578861 1.8140001
-0.23322859 -0.30924383 1.8140001
-0.22562705 -0.30786175 1.8140001
-0.21595243 -0.30636448 1.8140001
-0.20673844 -0.30578861 1.8140001
-0.25050479 -0.29542288 1.8140001
-0.24704954 -0.2988781 1.8140001
-0.22459048 -0.29542285 1.8140001
-0.21249716 -0.29542285 1.8140001
-0.20443492 -0.29427114 1.8140001
-0.19729412 -0.29473183 1.8140001
-0.24704954 -0.28505716 1.8140001
-0.23322859 -0.28505716 1.8140001
-0.22459048 -0.28419334 1.8140001
-0.21710414 -0.28505719 1.8140001
-0.20904192 -0.28851241 1.8140001
-0.1986762 -0.28851241 1.8140001
-0.24474606 -0.27411556 1.8140001
-0.23322859 -0.27296382 1.8140001
-0.22424495 -0.27400041 1.8140001
-0.21768002 -0.27469143 1.8140001
-0.24359432 -0.26778096 1.8140001
-0.2349562 -0.26605335 1.8140001
-0.22631812 -0.26605335 1.8140001
-0.21940763 -0.26778096 1.8140001
-0.30578861 -0.25396001 1.8140001
-0.25188574 -0.34221718 1.8240001
-0.24841145 -0.34221718 1.8240001
-0.29241908 -0.33295241 1.8240001
-0.28547052 -0.33295244 1.8240001
-0.27533716 -0.33266288 1.8240001
-0.26578289 -0.33427593 1.8240004
-0.25536007 -0.33468959 1.8240002
-0.2442423 -0.333184 1.8240002
-0.23451431 -0.333184 1.8240002
-0.37001145 -0.32832003 1.8240001
-0.36480004 -0.32484573 1.8240002
-0.35750404 -0.32415089 1.8240002
-0.30052572 -0.32310858 1.8240001
-0.29357716 -0.32484573 1.8240002
-0.28489149 -0.32484576 1.8240002
-0.27664 -0.32441145 1.8240002
-0.26752001 -0.32137144 1.8240001
-0.25651813 -0.32716194 1.8240001
-0.24146287 -0.32484573 1.8240001
-0.2345143 -0.32832003 1.8240001
-0.22458777 -0.32385311 1.8240004
-0.21453716 -0.32224 1.8240001
-0.20672001 -0.32137144 1.8240001
-0.35541946 -0.31511775 1.8240002
-0.34638628 -0.31233829 1.8240002
-0.33179432 -0.31094858 1.8240001
-0.32310858 -0.31094858 1.8240001
-0.31355432 -0.31442288 1.8240001
-0.30400005 -0.31616002 1.8240002
-0.29705146 -0.31789717 1.8240001
-0.27481604 -0.31581262 1.8240002
-0.26627922 -0.31442291 1.8240004
-0.25744459 -0.31511772 1.8240002
-0.22177526 -0.31673908 1.8240001
-0.2136686 -0.31541553 1.8240004
-0.20498288 -0.31442291 1.8240002
-0.19890288 -0.31442288 1.8240001
-0.34395432 -0.30747432 1.8240001
-0.33700573 -0.30747432 1.8240001
-0.32832003 -0.30747432 1.8240001
-0.2866286 -0.30052572 1.8240001
-0.2623086 -0.30400002 1.8240001
-0.25709718 -0.30400002 1.8240002
-0.20556192 -0.30631623 1.8240001
-0.19699202 -0.30399999 1.8240002
-0.29270861 -0.29097143 1.8240001
-0.2866286 -0.29010287 1.8240001
-0.25635266 -0.29308081 1.8240004
-0.22756574 -0.29010287 1.8240001
-0.20498288 -0.29010287 1.8240001
-0.19629715 -0.29010287 1.8240001
-0.30226287 -0.28489146 1.8240001
-0.29705146 -0.2866286 1.8240001
-0.27273145 -0.28315431 1.8240001
-0.26578289 -0.28315431 1.8240001
-0.25536001 -0.28489146 1.8240002
-0.22409144 -0.2866286 1.8240001
-0.21193144 -0.28489146 1.8240001
-0.20498288 -0.28489146 1.8240001
-0.1980343 -0.28489146 1.8240001
-0.34395432 -0.27273145 1.8240001
-0.3341105 -0.27620575 1.8240002
-0.32484573 -0.27620572 1.8240002
-0.31442288 -0.27620575 1.8240002
-0.30515811 -0.27562672 1.8240002
-0.29357716 -0.27273148 1.8240001
-0.28547052 -0.27388954 1.8240001
-0.27577147 -0.27577147 1.8240002
-0.26578289 -0.27620575 1.8240002
-0.25536004 -0.27620575 1.8240002
-0.21193145 -0.27620572 1.8240002
-0.20498288 -0.27968001 1.8240001
-0.19629717 -0.2782903 1.8240002
-0.35379812 -0.26346669 1.8240001
-0.34569144 -0.26578289 1.8240002
-0.33526859 -0.26578286 1.8240002
-0.32484573 -0.26578289 1.8240002
-0.31442288 -0.26578286 1.8240002
-0.30400005 -0.26578289 1.8240002
-0.29357716 -0.26578289 1.8240002
-0.28489146 -0.26578289 1.8240002
-0.27620575 -0.26578289 1.8240002
-0.26621714 -0.26621714 1.8240002
-0.25536001 -0.26752004 1.8240002
-0.24493717 -0.26404572 1.8240002
-0.2345143 -0.26317716 1.8240001
-0.22339658 -0.26369831 1.8240002
-0.21540573 -0.26578289 1.8240002
-0.35437715 -0.25536004 1.8240002
-0.34569144 -0.25536004 1.8240002
-0.33526862 -0.25536004 1.8240002
-0.32484573 -0.25536004 1.8240002
-0.31442288 -0.25536004 1.8240002
-0.30356574 -0.25536001 1.8240002
-0.29357716 -0.25536004 1.8240002
-0.28489149 -0.25536001 1.8240002
-0.27620575 -0.25536004 1.8240002
-0.26838857 -0.2562286 1.8240001
-0.23104002 -0.2588343 1.8240001
-0.21540573 -0.2588343 1.8240001
-0.35402974 -0.24563201 1.8240002
-0.34569147 -0.24592981 1.8240004
-0.33526862 -0.24493715 1.8240002
-0.32484573 -0.24493715 1.8240002
-0.31442288 -0.24493715 1.8240002
-0.30400002 -0.24493715 1.8240002
-0.29357716 -0.24493715 1.8240002
-0.28489146 -0.24493715 1.8240002
-0.27664 -0.24450286 1.8240002
-0.35264003 -0.23625144 1.8240001
-0.34453338 -0.2356724 1.8240002
-0.33526859 -0.2345143 1.8240002
-0.32484573 -0.2345143 1.8240002
-0.31442288 -0.2345143 1.8240002
-0.30400005 -0.2345143 1.8240002
-0.29357716 -0.23451431 1.8240002
-0.28489146 -0.2345143 1.8240002
-0.27620572 -0.23494858 1.8240002
-0.33526859 -0.22409146 1.8240002
-0.32484573 -0.22409146 1.8240002
-0.31442291 -0.22409143 1.8240002
-0.30400005 -0.22409146 1.8240002
-0.29357716 -0.22409146 1.8240002
-0.28489146 -0.22409146 1.8240002
-0.27678478 -0.2235124 1.8240002
-0.26925716 -0.22409144 1.8240001
-0.32484573 -0.21540575 1.8240002
-0.31442291 -0.2136686 1.8240002
-0.30400002 -0.21366857 1.8240002
-0.29357716 -0.2136686 1.8240002
-0.28489146 -0.21366858 1.8240002
-0.27968001 -0.21540573 1.8240001
-0.26185715 -0.34390575 1.8330001
-0.25662002 -0.34216005 1.8330001
-0.2182143 -0.34041432 1.8330001
-0.24963716 -0.33692288 1.8330001
-0.22519717 -0.33517718 1.8330001
-0.2182143 -0.33517718 1.8330001
-0.37300098 -0.32644859 1.8330001
-0.22345144 -0.32994002 1.8330001
-0.21402459 -0.32854348 1.8330001
-0.20774001 -0.32644859 1.8330001
-0.36485431 -0.31655622 1.8330001
-0.35787144 -0.31248286 1.8330001
-0.31422859 -0.31248286 1.8330001
-0.30550003 -0.31248289 1.8330001
-0.29458931 -0.31553787 1.8330001
-0.28498787 -0.31553784 1.8330001
-0.27756858 -0.31422859 1.8330001
-0.26709431 -0.31248286 1.8330001
-0.19726573 -0.31248286 1.8330001
-0.35263431 -0.30899146 1.8330001
-0.34390575 -0.30550003 1.8330001
-0.33517718 -0.30724573 1.8330001
-0.32644862 -0.30782765 1.8330001
-0.31597432 -0.30899149 1.8330001
-0.30500126 -0.30649757 1.8330002
-0.29502574 -0.30550003 1.8329999
-0.28411502 -0.30593646 1.8330001
-0.27407718 -0.30550003 1.8329999
-0.26569778 -0.30550003 1.8330001
-0.19726573 -0.30899146 1.8330001
-0.33517718 -0.2915343 1.8330001
-0.32819432 -0.2915343 1.8330001
-0.3159743 -0.2915343 1.8330001
-0.30506361 -0.29458931 1.8330001
-0.29572403 -0.29712057 1.8330001
-0.28411499 -0.29546219 1.8330001
-0.27407718 -0.29502577 1.8329999
-0.26534861 -0.29502574 1.8330001
-0.34390578 -0.28280574 1.8330001
-0.33517718 -0.28629714 1.8330001
-0.32644859 -0.28629717 1.8330001
-0.3159743 -0.28629717 1.8330001
-0.30550003 -0.28524974 1.8330001
-0.29458931 -0.28411499 1.8330001
-0.28455144 -0.28455144 1.8329999
-0.27495003 -0.28717002 1.8330001
-0.26534861 -0.28804287 1.8330001
-0.36136287 -0.27058575 1.8330001
-0.35438001 -0.27407718 1.8330002
-0.34390578 -0.27756858 1.8330001
-0.33692288 -0.27407715 1.8330001
-0.30375433 -0.27756858 1.8330001
-0.29502577 -0.27756858 1.8330001
-0.28455144 -0.27756858 1.8330001
-0.21123144 -0.27058575 1.8330001
-0.204685 -0.27364075 1.8330001
-0.19586916 -0.27337888 1.8330001
-0.36310861 -0.26360288 1.8330001
-0.35787144 -0.26709431 1.8330001
-0.26185715 -0.26185715 1.8330001
-0.25487429 -0.26185715 1.8330001
-0.24614573 -0.26011145 1.8330001
-0.23741716 -0.26011145 1.8330001
-0.22519717 -0.26011145 1.8330001
-0.21123144 -0.26360291 1.8330001
-0.20424856 -0.26360288 1.8329999
-0.19586916 -0.26360288 1.8330001
-0.36485434 -0.25487429 1.8330001
-0.26360285 -0.25487432 1.8330001
-0.25487429 -0.25487432 1.8330001
-0.24963716 -0.25487429 1.8330001
-0.23218001 -0.25662002 1.8330001
-0.22449887 -0.25522345 1.8330001
-0.21472287 -0.25487432 1.8330001
-0.20512144 -0.25487432 1.8330001
-0.1937743 -0.25662002 1.8330001
-0.37183717 -0.24614573 1.8330001
-0.36441788 -0.24658217 1.8330001
-0.35438001 -0.24265431 1.8330001
-0.34390575 -0.24265431 1.8330001
-0.2714586 -0.24701858 1.8330001
-0.26360288 -0.24614573 1.8329999
-0.25487429 -0.24614573 1.8330001
-0.24963716 -0.24963716 1.8330001
-0.22170573 -0.24963716 1.8330001
-0.21472287 -0.24614573 1.8329999
-0.20512144 -0.24876431 1.8330001
-0.36223572 -0.23479858 1.8330001
-0.35496193 -0.23450762 1.8330001
-0.34739718 -0.23218001 1.8330001
-0.27233145 -0.23479858 1.8330001
-0.26460046 -0.23617025 1.8330002
-0.25312859 -0.23392573 1.8330001
-0.21646859 -0.23916288 1.8330001
-0.35338247 -0.22569594 1.8330002
-0.34565145 -0.22519718 1.8330001
-0.27407718 -0.22589545 1.8330001
-0.26403934 -0.22476074 1.8330001
-0.25312859 -0.22694287 1.8330001
-0.28106001 -0.21123144 1.8330001
-0.27407718 -0.21472286 1.8329999
-0.26569778 -0.21542116 1.8330001
-0.3808867 -0.33174002 1.8430001
-0.21413906 -0.3352505 1.8430001
-0.3808867 -0.32471907 1.8430001
-0.3762061 -0.32471907 1.8430002
-0.36684477 -0.31418765 1.8430001
-0.35982382 -0.31067717 1.8430001
-0.40546006 -0.30265325 1.8430002
-0.35280287 -0.3071667 1.8430001
-0.3352505 -0.30482638 1.8430002
-0.32384145 -0.30541146 1.8430001
-0.31360257 -0.30365622 1.8430002
-0.3071667 -0.30365622 1.8430001
-0.41248098 -0.29312479 1.8430001
-0.40546006 -0.29488003 1.8430002
-0.34227145 -0.29488003 1.8430001
-0.3352505 -0.29663527 1.8430002
-0.32471907 -0.29575765 1.8430001
-0.31594288 -0.29663527 1.8430001
-0.41388518 -0.28540173 1.8430001
-0.40589887 -0.28654262 1.8430002
-0.37035525 -0.28434858 1.8430001
-0.36684477 -0.28259334 1.8430001
-0.35561126 -0.28399754 1.8430001
-0.34578192 -0.28961429 1.8430002
-0.41423622 -0.27908286 1.8430001
-0.40721527 -0.27908286 1.8430001
-0.37123287 -0.27469477 1.8430001
-0.36544058 -0.2762745 1.8430001
-0.35982382 -0.27908286 1.8430001
-0.37211049 -0.26504099 1.8430002
-0.19219859 -0.26504096 1.8430001
-0.1878105 -0.26153049 1.8430001
-0.37474337 -0.25363192 1.8430001
-0.24485573 -0.25714239 1.8430001
-0.235787 -0.2556797 1.8430002
-0.22818097 -0.2527543 1.8430001
-0.20360763 -0.25626478 1.8430001
-0.19483146 -0.25407073 1.8430002
-0.18473881 -0.25407073 1.8430002
-0.17727906 -0.25099906 1.8430001
-0.37316364 -0.24327603 1.8430001
-0.36684477 -0.24046764 1.8430001
-0.25099906 -0.24748859 1.8430001
-0.22379287 -0.24485573 1.8430001
-0.21238382 -0.24046764 1.8430001
-0.20492408 -0.24353932 1.8430002
-0.1974643 -0.24485573 1.8430001
-0.37152541 -0.235787 1.8430002
-0.36684477 -0.23695716 1.8430001
-0.26153049 -0.23520193 1.8430001
-0.25802001 -0.23520193 1.8430001
-0.21589431 -0.23695716 1.8430002
-0.20360763 -0.23695716 1.8430001
-0.19834192 -0.23695716 1.8430001
-0.26153049 -0.22993621 1.8430001
-0.25802001 -0.22642574 1.8430002
-0.26328573 -0.2158943 1.8430001
-0.21706572 -0.34059906 1.853
-0.38471812 -0.3300105 1.853
-0.4323667 -0.32295144 1.853
-0.42883718 -0.32471621 1.853
-0.42883718 -0.31942192 1.853
-0.41118956 -0.31412762 1.853
-0.40766004 -0.31412762 1.853
-0.3670705 -0.31236288 1.853
-0.42177811 -0.30353907 1.853
-0.41530737 -0.30530381 1.853
-0.40148336 -0.3061862 1.853
-0.39707145 -0.30177429 1.853
-0.36530572 -0.30883336 1.853
-0.35824668 -0.30883336 1.853
-0.3429521 -0.30295083 1.853
-0.33354005 -0.30318612 1.853
-0.32530448 -0.30412734 1.853
-0.31942192 -0.30353907 1.853
-0.4226605 -0.29383287 1.853
-0.41736621 -0.29559764 1.853
-0.40060097 -0.29648 1.853
-0.39707145 -0.29824477 1.853
-0.3747178 -0.29353875 1.853
-0.36648223 -0.29353878 1.853
-0.35401127 -0.29400936 1.853
-0.34765813 -0.29648 1.853
-0.42429927 -0.28412673 1.853
-0.38295335 -0.2841267 1.853
-0.37765908 -0.28412673 1.853
-0.36530575 -0.28677386 1.853
-0.42177811 -0.27706763 1.853
-0.4147191 -0.27530289 1.853
-0.40766004 -0.27706763 1.853
-0.38295335 -0.27353811 1.853
-0.37854144 -0.2744205 1.853
-0.38295335 -0.2647143 1.853
-0.37942383 -0.2647143 1.853
-0.38295335 -0.25589049 1.853
-0.37942383 -0.25765526 1.853
-0.24530193 -0.25471398 1.853
-0.23471336 -0.252361 1.853
-0.38295335 -0.24883145 1.853
-0.37942383 -0.24353716 1.853
-0.25765526 -0.2417724 1.853
-0.22765431 -0.24353716 1.853
-0.19377087 -0.244596 1.853
-0.18580423 -0.24631038 1.853
-0.17706446 -0.24647844 1.853
-0.22341888 -0.23541926 1.853
-0.2135362 -0.23588988 1.853
-0.20471239 -0.23471335 1.853
-0.19588859 -0.23647811 1.853
-0.25765526 -0.22236001 1.853
-0.44179717 -0.32114574 1.863
-0.43647432 -0.32114574 1.863
-0.42405429 -0.32469431 1.863
-0.41518289 -0.32469434 1.8630002
-0.40773088 -0.32327491 1.8630002
-0.39744002 -0.32114574 1.863
-0.38147146 -0.32469431 1.863
-0.44483882 -0.31303474 1.8630002
-0.43470001 -0.31404862 1.863
-0.42405429 -0.31404859 1.863
-0.41695717 -0.31582287 1.863
-0.4045372 -0.31582287 1.863
-0.39610928 -0.31360501 1.863
-0.37579373 -0.31404859 1.8630002
-0.36727718 -0.31050003 1.863
-0.44534576 -0.30517718 1.8630002
-0.43470007 -0.30517718 1.8630002
-0.42760289 -0.30517715 1.863
-0.39495602 -0.30553204 1.8630002
-0.38502002 -0.30517718 1.8630002
-0.37437433 -0.30517718 1.8630002
-0.36372861 -0.3048223 1.8630002
-0.35485718 -0.30517715 1.863
-0.3495343 -0.30517715 1.863
-0.44534573 -0.29630575 1.863
-0.43470001 -0.29630572 1.863
-0.42760289 -0.29808003 1.863
-0.40276289 -0.29275715 1.863
-0.39522216 -0.2958622 1.863
-0.3854636 -0.29674932 1.863
-0.37792289 -0.29985431 1.863
-0.36301887 -0.29843488 1.8630002
-0.35663146 -0.29985431 1.863
-0.44490212 -0.28521645 1.863
-0.43514359 -0.28566003 1.863
-0.40418234 -0.28495032 1.8630002
-0.39566574 -0.28566003 1.863
-0.38856861 -0.28566003 1.8630002
-0.44534573 -0.27856287 1.8630002
-0.43419307 -0.27602819 1.8630002
-0.42523718 -0.27383143 1.8630002
-0.41518289 -0.27146572 1.863
-0.40586787 -0.2745707 1.863
-0.39566574 -0.27501431 1.863
-0.38856861 -0.27501431 1.8630002
-0.42228001 -0.26791716 1.863
-0.41577432 -0.2667343 1.8630002
-0.40702119 -0.26649773 1.8630002
-0.39515883 -0.26538247 1.8630002
-0.38856861 -0.26436859 1.8630002
-0.3921172 -0.25372288 1.8630002
-0.38856861 -0.25372288 1.8630002
-0.25017431 -0.25017431 1.863
-0.24485144 -0.2519486 1.863
-0.23598002 -0.25017434 1.8630002
-0.25254005 -0.24544287 1.8630002
-0.23598 -0.24573858 1.863
-0.18452573 -0.24307716 1.863
-0.17742857 -0.24307716 1.863
-0.25372288 -0.23952858 1.863
-0.22770002 -0.2336143 1.8630002
-0.21380144 -0.2333186 1.863
-0.20404288 -0.23243146 1.8630002
-0.19458002 -0.23361431 1.8630002
-0.18630001 -0.23598 1.863
-0.17742859 -0.23598002 1.8630002
-0.22296858 -0.22770004 1.8630002
-0.21468858 -0.22533433 1.863
-0.20404287 -0.2253343 1.863
-0.19517145 -0.22533429 1.8630002
-0.18896145 -0.22622144 1.863
-0.17565429 -0.22710858 1.863
-0.22296858 -0.21350573 1.8630002
-0.21424501 -0.21513216 1.863
-0.20404287 -0.2146886 1.863
-0.19517145 -0.21468858 1.8630002
-0.18984859 -0.21646288 1.863
-0.40492481 -0.32643718 1.8730001
-0.3935084 -0.32501012 1.8730001
-0.38589749 -0.32405877 1.8730001
-0.37995145 -0.32286954 1.8730001
-0.39154622 -0.31662622 1.8730001
-0.3853029 -0.31573433 1.8730001
-0.37995145 -0.3157343 1.8730001
-0.36568096 -0.30859905 1.8730001
-0.45130384 -0.29076096 1.8730001
-0.44060099 -0.27292287 1.8730001
-0.43703336 -0.27292287 1.8730001
-0.44060099 -0.26757145 1.8730001
-0.4348928 -0.26650116 1.8730001
-0.42684016 -0.26476833 1.8730003
-0.41562766 -0.26311192 1.8730001
-0.40492478 -0.26311192 1.8730001
-0.39778954 -0.26222003 1.8730001
-0.40492478 -0.25508478 1.8730003
-0.39778957 -0.25508475 1.8730001
-0.25151715 -0.24259812 1.8730001
-0.24482787 -0.24393597 1.8730001
-0.23486827 -0.2420035 1.8730001
-0.25508478 -0.23724668 1.8730001
-0.18373239 -0.23011145 1.8730001
-0.17659715 -0.23011145 1.8730001
-0.22535464 -0.22416542 1.8730001
-0.18444592 -0.22440326 1.8730001
-0.17540795 -0.22416542 1.8730001
-0.22297621 -0.21940859 1.8730001
-0.19086763 -0.21227334 1.8730001
-0.18373239 -0.21584098 1.8730003
-0.17481336 -0.21584098 1.8730001
-0.16732135 -0.21441393 1.8730001
-0.17445658 -0.20513812 1.8730001
-0.1658943 -0.2051381 1.8730003
-0.25644669 -0.23492669 1.8830001
-0.23134002 -0.23134002 1.8830001
-0.22775334 -0.22058001 1.8830001
-0.25433716 -0.23990668 1.8940001
-0.23750162 -0.23870414 1.8940001
-0.23269144 -0.22908382 1.8940001
-0.25205335 -0.24117334 1.904
-0.24661335 -0.24117334 1.904
-0.24298668 -0.23754668 1.904
